# .PCD v0.7 - Point Cloud Data file format
VERSION 0.7
FIELDS x y z
SIZE 4 4 4
TYPE F F F
COUNT 1 1 1
WIDTH 1468
HEIGHT 1
VIEWPOINT 0 0 0 1 0 0 0
POINTS 1468
DATA ascii
-0.83427954 3.2225409 0.35429496
-0.78858614 3.2258821 0.35165694
-0.74112815 3.2353449 0.34298456
-0.67206508 3.1739087 0.3230629
-1.0840727 3.2644327 0.36683449
-1.0330402 3.260412 0.3563017
-0.96287304 3.1923311 0.33344242
-0.89294875 3.1536429 0.30834562
-1.3415178 3.2810531 0.37851259
-1.2860161 3.2776961 0.3610107
-1.2129561 3.222717 0.33207071
-1.1336513 3.1796014 0.3000887
-1.6103445 3.2895045 0.39315805
-1.5567234 3.3007369 0.36952293
-1.4532976 3.1934853 0.327259
-1.3842591 3.1885314 0.29088381
-2.3017745 2.9880981 0.41368806
-2.4776101 3.3223131 0.40351525
-2.7487407 3.3034611 0.34935507
-2.6170146 3.249409 0.26990354
-3.4401803 0.079986937 0.43528226
-1.0712261 -2.3112371 0.24957699
-0.20645957 -2.415848 0.26077491
-0.094667092 -2.3502412 0.24119982
-0.14603865 -2.4312613 0.27341342
-0.091812752 -2.37483 0.27542338
0.31776309 -2.4467726 0.27448502
0.36291471 -2.1025555 0.24611188
0.43288454 -2.1875765 0.25638869
3.6156135 -5.7516055 0.75603998
3.6041663 -5.4910593 0.66485059
0.49514228 -1.5919172 0.21614759
3.4847844 -4.5940638 0.59164906
3.7388535 -4.4526019 0.68068498
3.6089509 -4.5402188 0.50426877
3.9103096 -4.4643292 0.60723299
4.210681 -1.1810002 0.55550599
4.2126532 -1.0482471 0.42345154
4.2512169 -0.88173342 0.54945552
4.1302156 -0.56363446 0.52587819
0.74826443 3.019532 0.22746377
0.12967753 3.0599539 0.20485184
-1.2539011 -2.2704577 0.3297008
-1.0148237 -2.3246334 0.25817356
-0.25197655 -2.3242378 0.34069866
-0.16459611 -2.4382808 0.28835487
-0.071462326 -2.3141456 0.21515295
-0.091411866 -2.3981087 0.35366368
-0.00061194261 -2.3237219 0.28284004
3.9808314 -4.4575233 0.81400019
3.6019213 -5.594707 0.69484931
3.3577087 -4.6882725 0.51049596
3.6230524 -5.9667459 0.95302421
3.6384971 -5.3979826 0.79159486
3.4421773 -4.6195035 0.62667626
3.7028806 -4.4609408 0.5416317
3.4447646 -4.8972602 0.82393408
3.5863853 -4.6078038 0.72282273
3.8458393 -4.4646711 0.65689224
3.6234758 -4.4629393 0.78898555
3.7980783 -4.4588566 0.80144727
4.2227941 -1.0786017 0.57202131
4.2288227 -0.87171912 0.59141922
4.1397319 -0.64235848 0.60082304
4.2290215 -0.97092098 0.54321146
4.2174878 -0.76191568 0.56244218
4.1367874 -0.55104899 0.58006626
4.2535262 -0.65622163 0.52890289
4.0915818 -0.43870214 0.54077846
4.2033324 -1.2687302 0.59137827
4.2071929 -1.4004977 0.58246505
4.2129149 -1.1828943 0.59077382
4.228693 -0.96044385 0.60313016
3.0734067 2.9899559 0.61965072
2.9495401 3.0056779 0.72647297
2.3838334 2.6932645 0.52611953
0.33526018 3.1685579 0.53480327
0.11321638 3.094506 0.26347712
0.11955351 3.1793463 0.3578594
-0.10672172 3.1121762 0.26545447
0.78954774 3.0646968 0.27050337
0.78999019 3.1354744 0.36894801
-0.32852444 3.127296 0.26943639
0.56223726 3.1486249 0.36289415
-0.55398893 3.1508999 0.27531919
-1.4451675 3.2859907 0.53663158
-0.78676838 3.1692526 0.28318149
-0.77536452 3.2317262 0.36878544
-1.7492249 3.2581203 0.47724894
-1.7158496 3.3004622 0.54720074
-1.0193818 3.1531978 0.29132038
-1.0178412 3.2566736 0.37851211
-1.2769396 3.1870625 0.30584702
-2.5607557 3.3559101 0.40351817
-1.2696977 3.2723999 0.38923231
-1.1354502 2.9837236 0.42169186
-2.4151907 3.3553791 0.5247764
-2.3332701 3.3424814 0.57758421
-1.5417125 3.1984568 0.32049152
-2.7859139 3.3768284 0.55243468
-2.6926904 3.367085 0.60031366
-1.6318393 -0.025750972 0.26750183
-3.8847289 -7.1868067 1.3815072
-3.8830483 -7.6697598 1.9404167
-1.0556902 -2.2240636 0.38900211
-0.87035054 -2.2296801 0.38863239
-3.6674681 -5.2955856 1.4132551
0.1048312 -2.0827978 0.51681197
0.16133243 -2.0536308 0.56806558
0.39974505 -2.0608859 0.53416079
3.8653631 -6.4326553 1.5157967
4.1350222 -0.4754211 1.1285075
4.2539082 0.09953592 1.182942
4.3130693 0.39677605 1.21708
-1.2033737 0.45333433 0.33735996
-1.1392801 0.48588535 0.32764912
-1.2106133 0.43088463 0.34047779
-1.5387144 -1.9971973 0.80103105
-1.346424 -2.0140748 0.78280938
-0.56722111 -2.0360498 0.80065429
-0.53252113 -2.1506801 0.778862
-0.42809466 -2.0785003 0.81518334
-1.0508651 -2.0700862 0.83778763
-0.37351409 -2.1420121 0.77715319
-1.0279732 -2.1221101 0.78739399
-0.34256417 -2.0947452 0.88304889
-0.28161907 -2.0849583 0.81948817
-0.2165716 -2.1065416 0.77021313
-0.20249228 -2.1008782 0.88829637
-0.13679108 -2.0925627 0.82678813
-0.69435817 -2.1502974 0.7804721
4.236361 -0.77057683 1.8537635
4.2105622 -0.99441582 1.8193204
4.231833 -0.74202174 1.8364962
4.2506275 -0.46913302 1.8594884
4.2315645 -0.94139457 1.7930765
4.2406478 -0.68919337 1.8081493
4.2350473 -0.43886235 1.8291099
4.2766733 -0.1737894 1.8783623
4.2377014 -0.630243 1.7656494
4.1766829 -0.37826148 1.7671243
4.2733274 -0.14338836 1.8440897
4.2976637 0.12167861 1.9031951
4.2442722 -0.32486817 1.7442768
4.2851453 -0.086123034 1.8017328
4.2832232 -0.02172243 1.7442003
4.2996349 0.21671695 1.8074501
4.3067918 0.45598766 1.8786143
4.3078279 0.28591001 1.746966
0.81447971 0.17419527 0.41286612
0.81383848 0.22456194 0.43146157
0.7465362 0.25974268 0.4236055
0.74629235 0.2805734 0.42643809
0.7679773 0.30352557 0.41944087
0.71895504 0.33725759 0.42275351
-0.46787602 0.46145442 0.26860088
-0.89979231 0.52790284 0.4113861
-0.95212299 0.4841615 0.42528686
-0.95709258 0.41759631 0.41977292
-0.96227801 0.44354913 0.42652276
-0.92485815 0.44814888 0.41180551
-0.97342438 0.35649413 0.42111871
-0.96024168 0.37583235 0.41807771
-0.96502477 0.39953852 0.41984856
-1.0116538 0.32909793 0.43501016
-1.0302058 0.35648748 0.44063416
-1.0291363 0.38064781 0.43745109
-1.0672704 0.25228298 0.45814604
-1.0397488 0.29282963 0.43805808
-1.0416799 0.31602907 0.43285689
-1.0771067 0.23519011 0.44919708
-1.0540235 0.25283033 0.43125328
-3.2318482 -3.0320959 1.9178108
-0.55689168 0.585823 0.43886712
-0.54884315 0.59173113 0.44588959
-0.52974123 0.58577335 0.44510049
-0.52691954 0.55800092 0.43034437
-0.51480031 0.52079505 0.40774229
-0.55353552 0.48905209 0.40166244
-0.61257529 0.48873377 0.42716116
-0.5869928 0.48237956 0.41643
-0.5564304 0.37533879 0.35753831
-0.65088731 0.46489319 0.4350231
-0.6490503 0.48111629 0.44191039
-0.68244797 0.39759079 0.42628703
-0.56126666 0.33594379 0.34780934
-0.67089897 0.44306365 0.43602532
-0.71575308 0.36508858 0.438261
-0.7250154 0.35227951 0.4412837
-0.71494216 0.36567381 0.43826333
-0.69253629 0.37056357 0.42541546
-0.7495333 0.31616941 0.44736114
-0.73973387 0.33169109 0.4343209
-1.0319669 0.32065722 0.61491859
-1.2245656 0.32738191 0.71622276
-1.2368567 0.28126001 0.69848287
0.52171218 0.1553445 0.59454316
0.50093883 0.17061488 0.55423999
-0.42181835 0.47729006 0.43689451
-0.42837971 0.46759304 0.4349153
-0.45337337 0.44583887 0.43387425
-0.46408248 0.44186512 0.43781447
-0.88317144 0.28848988 0.69046235
-0.89771831 0.27443156 0.7004503
-0.92846918 0.30672255 0.71593142
-0.91615176 0.28458521 0.70221198
-0.94649166 0.31462169 0.71171415
-0.95573682 0.34113187 0.70342386
-0.94927084 0.25699401 0.70314795
-0.97053796 0.28476307 0.699745
0.44058752 0.11559074 0.61717105
0.46035948 0.139516 0.60214937
0.42736959 0.16639221 0.61065429
-0.75851095 0.32580453 0.72025329
-0.7595796 0.31020629 0.71836782
-0.7450037 0.28838146 0.69866443
-0.73843837 0.27078128 0.68885964
-0.78070349 0.30359077 0.71823972
-0.76671278 0.28257674 0.69852489
-0.81196994 0.31441745 0.72488689
-0.82750231 0.33766526 0.71956927
-0.80091017 0.26160577 0.69939893
-0.82929248 0.28554273 0.70096636
0.41421732 0.13845171 0.61677319
-0.76550102 0.30471218 0.72238004
-0.79772037 0.32712686 0.72492737
-0.76359671 0.2577233 0.70376706
-0.79165119 0.27439913 0.69839489
0.4279125 0.12116323 0.61703968
0.40473443 0.14481926 0.59465319
0.12085383 0.57556051 0.62782913
-0.71832973 0.27534238 0.68902701
-0.72117108 0.26219228 0.6891064
-0.75814718 0.2775158 0.6946696
-0.80975467 0.29598415 0.7100836
-0.87153679 0.31827745 0.73038059
-0.8607685 0.25904822 0.70193785
-0.73512292 0.3104609 0.71560872
0.47798109 0.11667195 0.62451833
0.50985616 0.15799467 0.61146504
0.46185619 0.15786369 0.61005497
0.41676569 0.15369159 0.61070323
0.17471771 0.39069363 0.41875124
-0.43933392 0.44852597 0.44003981
-0.95355415 0.29192248 0.69888544
-1.0440942 0.30960357 0.72697234
-0.59460306 0.32533675 0.43868041
-0.59359163 0.29656827 0.44591612
-0.6113714 0.30584821 0.43969029
-0.86338758 0.27806446 0.69876713
-0.91547787 0.28868744 0.70723778
0.53009498 0.11456057 0.60899633
0.61893904 0.16748901 0.60234112
0.53266674 0.17265113 0.57355893
0.50222689 0.16692261 0.5883441
0.51945817 0.84316802 0.69617891
-0.47753945 0.57725328 0.43463561
-0.44544426 0.52086496 0.38832998
-0.49346915 0.4951027 0.40519184
-0.50572741 0.50354987 0.40703306
-0.53048998 0.54639745 0.42850196
-0.54867417 0.5852648 0.44305116
-0.54828745 0.48047334 0.42291209
-0.54408687 0.48833939 0.41587785
-0.54702032 0.50096405 0.41175264
-0.5552538 0.52092928 0.41252878
-0.58372998 0.46121565 0.43281144
-0.59992325 0.48537096 0.43849534
-0.59377736 0.4871352 0.42352492
-0.58999276 0.49216831 0.41151059
-0.61364609 0.43601316 0.43779972
-0.63108838 0.45677531 0.44150215
-0.65131539 0.47798166 0.44418055
-0.66416001 0.49580073 0.44094029
-0.62631881 0.39718089 0.43002501
-0.65733457 0.42306638 0.44158682
-0.68397111 0.44460881 0.44621572
-0.70579112 0.46461242 0.44489205
-0.65052646 0.36747468 0.43509212
-0.67163658 0.38307241 0.43480983
-0.6949538 0.39831144 0.43451437
-0.74109834 0.428085 0.4469336
-0.66897357 0.33321556 0.43523818
-0.70587099 0.3535904 0.44480193
-0.72844177 0.36438254 0.44054815
-0.75159013 0.37597761 0.43528348
-0.69739783 0.30422482 0.44526875
-0.72897309 0.31723434 0.4469313
-0.76895338 0.33163378 0.4525212
-0.77621526 0.31776786 0.45258185
-0.78090411 0.30204549 0.45167643
-0.8232885 0.31465748 0.45326322
-0.72185403 0.24072117 0.42660955
-0.74938554 0.24300505 0.42238933
-0.79466307 0.25107855 0.42499217
-1.1132635 0.30254364 0.70625758
-1.1967794 0.31403872 0.72155362
-1.267957 0.3169966 0.7240091
-1.2231413 0.24457912 0.72893095
1.1415663 0.18476756 0.67970997
0.5950495 0.18406214 0.41070342
0.8343097 0.8091566 0.6903429
-0.8554818 0.60718322 0.45662406
-0.80496728 0.54574621 0.42249581
-0.87341672 0.60643065 0.44549826
-0.98776782 0.38550669 0.41747361
-1.0039279 0.39085692 0.39831033
-0.84575492 0.50655365 0.4285194
-0.85936695 0.52373856 0.41927814
-1.0457797 0.33770001 0.43144244
-0.95813346 0.59225643 0.44999495
-1.1340483 0.35922098 0.43862042
-0.88398427 0.46552095 0.43557689
-0.94316882 0.50312364 0.4458358
-1.0585995 0.2717073 0.42889017
-0.94851983 0.50887156 0.42674825
-1.085085 0.27085811 0.41070223
-0.93936831 0.43291408 0.43043894
-1.0712078 0.20712689 0.42832798
-0.9805848 0.45246476 0.42697662
-1.044361 0.19390768 0.38963056
-3.4198608 0.12157206 1.3619043
-3.4284518 0.072127149 1.2632414
-0.58248955 -0.13689037 0.25771844
-3.4517713 -3.0000606 1.9793482
-3.23808 -3.2124143 1.8686503
4.0786085 -3.1591077 1.9688042
4.2300687 -0.99718851 1.6861175
4.2317147 -0.86631918 1.79406
4.2425704 -0.73970205 1.9171057
4.2356548 -0.68172312 1.6495625
4.2505465 -0.56582361 1.7677256
4.2585177 -0.45231372 1.8958582
4.2700443 -0.26968455 1.7484322
4.2803421 -0.16796336 1.883679
4.2844996 0.026597561 1.7351007
0.77811199 0.33362314 0.42782289
4.2949381 0.11614674 1.8744491
4.314343 0.40383196 1.8732253
0.81278384 0.17957382 0.40734279
0.75863409 0.18626264 0.41589183
0.87793344 3.1468256 1.0074425
0.62809539 3.144479 1.0266331
0.2195785 3.1777658 0.92736155
0.27656212 3.1773324 0.95678395
0.33697405 3.1755774 0.97924197
0.51719642 3.1582484 0.93770164
0.41310698 3.1691194 1.0008537
0.57073754 3.1591525 0.97608846
-0.00068585359 3.1977072 0.92658359
0.63004613 3.1554909 1.0075547
0.057073601 3.1927936 0.94804806
0.55660284 3.1616123 0.99996573
0.12024171 3.1855216 0.96257114
0.19629377 3.1826088 0.97715271
-0.22107361 3.2126825 0.92984581
-0.16083679 3.2094741 0.94531405
-0.096938595 3.2063324 0.95280802
-0.018628128 3.2037206 0.9604032
-0.44284093 3.2193067 0.93616676
-0.38025188 3.2213986 0.94460809
-0.3154912 3.2187841 0.9451037
-0.23639779 3.2116842 0.94374102
-0.66924435 3.2374766 0.94935906
-0.6047098 3.2334664 0.94986445
-0.53813607 3.2283528 0.94239336
-0.45677701 3.2215457 0.93304443
-0.83573163 3.2494984 0.96004039
-0.76668054 3.2460902 0.94657302
-0.68372005 3.2353716 0.92726737
-1.1471775 3.2744336 0.99355561
-1.0789758 3.2790427 0.98001611
-1.000506 3.2489245 0.9508366
-1.3966063 3.2749305 1.0187253
-1.3282592 3.2844808 0.99814582
-1.2554878 3.2810731 0.9687047
-1.1689321 3.2739685 0.93338615
-1.517313 3.2885427 0.98471689
-1.4309778 3.2885756 0.94234616
-1.5217201 3.2947276 0.94763076
-1.2174346 0.4802272 0.3309935
-3.50646 0.34720734 0.76734799
0.32091752 -2.000895 0.5947333
0.2717638 -2.0267293 0.57558584
4.2319708 -1.0805833 0.88983554
4.0386477 -0.71658862 0.82541287
4.12293 -0.41797853 0.81756759
2.9667752 2.9913764 0.67795426
2.5780725 3.026159 0.63481438
2.4530439 2.8985279 0.68895435
2.5802982 3.0174792 0.87691683
2.2256584 3.0465066 0.59806001
2.2611592 3.0430162 0.81736213
0.84605002 3.1391349 0.50017411
0.69229215 3.1626031 0.49585235
0.72197336 3.1487274 0.53118652
0.7585007 3.1458843 0.56147951
0.80596954 3.1398351 0.59187913
0.45518142 3.1443825 0.48526299
0.4947238 3.1647105 0.51838696
0.5829612 3.1414146 0.56422865
0.23403086 3.1809518 0.48433891
0.27213046 3.1742299 0.50867504
0.01088114 3.1963558 0.48357478
0.052175149 3.1869247 0.50195634
0.097311698 3.187566 0.51328248
-0.2121585 3.2081816 0.48584118
-0.1672554 3.2074351 0.49817714
-0.11960337 3.2011795 0.50357831
-0.06080709 3.2016993 0.50700516
-0.43719345 3.2210615 0.49008432
-0.38932246 3.2162099 0.49647552
-0.33918568 3.2116511 0.4948805
-0.27731976 3.2130566 0.49132213
-0.66449946 3.2199903 0.49542597
-0.61549777 3.2306793 0.49669686
-0.56265688 3.2292216 0.48909542
-0.49840042 3.2273245 0.47858137
-0.90494406 3.2576451 0.50935167
-0.84701431 3.2388728 0.49993068
-0.7848798 3.2057383 0.48065847
-0.72265053 3.2220497 0.46597898
-1.1520216 3.2720129 0.52242124
-1.0339366 3.2604845 0.48537964
-1.4122845 3.2892702 0.54037058
-1.3427112 3.2663484 0.51506817
-1.286291 3.2770629 0.4873915
-1.0967882 2.9305942 0.41063693
-1.6820165 3.2923033 0.55836773
-1.6173946 3.2916455 0.52884501
-1.5536641 3.2939479 0.49229085
-1.3283408 2.9337232 0.40591207
-1.5895993 2.9660714 0.40772843
-2.0752361 3.0922403 0.52913231
-2.6743815 3.3758309 0.6564039
-2.584579 3.3608298 0.59418219
-2.5050092 3.3531897 0.52782452
-2.1894462 3.0268705 0.41682634
-2.866745 3.34536 0.54422617
-2.5001099 3.0063636 0.41970766
-3.0172048 2.9896967 0.59006268
-3.0032747 3.054292 0.52162677
-3.4548085 1.3108572 0.42370713
-1.6770936 -0.019192901 0.29572824
-0.89026439 -2.2511187 0.34195152
-0.22701044 -2.326396 0.34744999
-0.061313491 -2.3424911 0.35179991
3.6394904 -5.9243135 1.0396286
0.54664278 -2.2504432 0.36450303
0.82355714 -1.5724884 0.27092212
3.6404703 -5.6895123 0.93768895
3.9401574 -5.5239878 1.0295252
0.71713698 -2.2321675 0.37560442
3.5901282 -6.0041199 0.7789129
3.62694 -5.4259958 0.81540388
3.4054141 -4.6057339 0.80399299
3.6487691 -4.447567 0.89347649
3.4254897 -4.927403 0.65379268
3.5696144 -4.6178851 0.7242949
3.8044178 -4.4547076 0.81967455
4.0196452 -4.2575412 0.91662943
3.6070547 -4.4815059 0.60843563
3.9829867 -4.4628267 0.72804779
4.0171027 -4.2929587 0.71289259
4.0920253 -0.3850359 0.53010547
4.1959004 -1.4528487 0.72371352
4.2327557 -1.1465708 0.71245086
4.2278857 -1.1855097 0.46372205
4.2209392 -1.0102262 0.5762279
3.814821 -0.75482565 0.63513803
4.2300901 -0.86364216 0.44407427
4.1119308 -0.68113798 0.54670358
4.0975909 -0.52467781 0.66431117
2.3475268 2.9035354 0.39909211
2.0876417 2.9649734 0.29067004
0.77425903 3.0751383 0.23411842
0.55149972 3.0609741 0.21359962
0.38050783 -2.1513779 0.20632841
-0.17042324 -2.4440978 0.27569067
3.6216152 -5.493309 0.65758651
3.5164154 -4.617147 0.58161342
3.7583032 -4.4720263 0.51319379
3.9407716 -4.4824495 0.58962339
4.2246757 -1.1261947 0.42814708
4.2443619 -1.0149497 0.40237677
3.0028064 2.9978535 0.57133359
2.5862167 2.967 0.53452641
2.3011119 3.0324521 0.51789528
1.6074588 2.7396262 0.43920204
0.69155216 2.8319287 0.39271814
0.53261697 3.0010436 0.40316403
0.78330678 3.0537875 0.23656145
0.79134595 3.1262298 0.33303174
0.12799005 3.0940778 0.22841971
0.13179493 3.0954764 0.31144124
0.14201055 3.1324241 0.40221846
-0.08543472 3.1165061 0.22866906
-0.076529555 3.1228015 0.31068781
-0.30122462 3.1199844 0.23005667
-0.28850594 3.1363854 0.30902028
-0.27280936 3.1759984 0.39581564
-0.52272671 3.1501896 0.2331831
-0.50400585 3.1548522 0.30928689
-0.48576701 3.2012024 0.39404556
-0.76313823 3.2408073 0.24167521
-0.73644918 3.2327101 0.31694221
-0.69486088 3.1526663 0.38590872
-0.97618777 3.1549971 0.24081571
-1.2257559 3.1847827 0.2497427
-1.4841999 3.199528 0.2587254
-1.4450439 3.2015176 0.32400048
-1.720145 3.2239766 0.33279759
-1.6998042 3.2913773 0.40339807
-2.4020123 3.2583869 0.30250868
-2.3861518 3.3285992 0.36405265
-2.2921977 3.292233 0.41504389
-2.767067 3.3661363 0.38294998
-2.6178088 3.2770274 0.42277935
-2.0634222 0.73715496 0.21268122
-3.4408293 1.2742939 0.32116935
-1.4020884 -2.2680886 0.36620453
-1.0009176 -2.2550933 0.36004153
-0.23007689 -2.3323939 0.31533062
-0.82349002 -2.265219 0.36242676
3.8567493 -6.7318373 1.1934694
3.8147449 -7.1479406 1.5645967
3.8626802 -6.4667654 1.3333462
3.6569345 -5.4661422 1.0526104
3.8806951 -6.2132444 1.4334041
3.9240503 -5.6420689 1.2440252
3.600924 -4.6445284 0.97645408
3.7904735 -5.2397389 1.2847463
3.5946386 -4.4838209 1.0700948
3.9811244 -4.4401093 1.0185697
3.7119088 -4.4534454 1.1667119
3.9988542 -4.321259 1.11273
4.026103 -4.1538439 1.0995559
4.1915889 -1.5156134 0.92511672
4.1570358 -0.57515609 0.92614913
4.0754967 -0.61408287 0.8448649
4.1089063 -0.41083944 0.87344486
0.5783059 3.1357281 0.53743345
-1.4985708 -2.0086515 0.80338329
-1.5868427 -2.1956921 0.79526818
-1.3080196 -2.0010233 0.78071797
-4.0024638 -7.5765843 1.9997212
-1.0182554 -2.108834 0.78972906
-0.70992458 -2.129519 0.78016084
-0.5610733 -2.1393335 0.77933383
-0.41480228 -2.1472831 0.7804727
-0.26859212 -2.1380453 0.77947021
-0.12494821 -2.0704958 0.75996971
4.029819 -3.6921449 1.854828
4.0405817 -3.5925949 1.8960937
3.5320349 -4.961525 1.9915881
4.0580907 -3.3432958 1.8931786
3.6536734 -4.4409895 1.9072089
4.0841699 -3.2101445 1.870277
4.0074453 -4.3416896 1.87599
3.9981127 -4.2143245 1.9458817
4.0293188 -3.787082 1.7895992
4.2502623 -0.60498631 1.590124
4.0086093 -4.0939016 1.9949747
4.2213306 -1.0555024 1.5446019
4.1647105 -0.79569763 1.5300556
4.2570539 -0.5682137 1.5768716
4.2631679 -0.30828974 1.5997872
4.2505112 -0.50435585 1.5422981
4.2832317 -0.26939854 1.5826148
4.2879643 -0.012720167 1.6215479
4.2344322 -1.0122048 1.5863461
0.99701887 0.11517448 0.45727065
4.2423391 -0.91032296 1.5875691
4.21492 -1.1201909 1.5700871
1.0085202 0.12830399 0.45024705
4.2122808 -0.86688888 1.5699914
-0.9946261 0.50432378 0.39445832
-1.0379214 0.44979444 0.40258804
-1.017014 0.46355513 0.39662844
-1.1286259 0.43533137 0.43104267
-3.2264738 -3.1094179 1.9507793
-0.38624969 -2.0606573 0.91896296
0.89594334 0.81740183 0.69679081
0.59629864 0.29311967 0.42086634
-0.52606207 0.49907899 0.36594898
-0.65732485 0.55447537 0.42953742
-0.66138536 0.57888383 0.44530901
-0.65527153 0.50890988 0.41492429
-0.75229162 0.4638947 0.43558231
-0.70890635 0.49264386 0.43066511
-0.80004781 0.43092382 0.45250288
-0.76670688 0.43258533 0.43873295
-0.80146402 0.37306193 0.44296512
-0.78836232 0.38738582 0.43894386
-0.76693523 0.39530414 0.42903563
-0.82876927 0.32884097 0.45212713
-0.83975095 0.35431531 0.45983884
-0.81047428 0.3616218 0.4419927
-0.85471714 0.32377732 0.4579792
-0.85350001 0.34432533 0.4538199
-0.81630802 0.25859761 0.42779186
-0.80993038 0.27541602 0.41970068
-3.466881 0.61803162 1.9485121
-1.3518658 0.32882917 0.71730876
-1.1980277 0.32255149 0.62048209
-1.4974394 0.29979312 0.77048206
0.13595487 0.40329677 0.3765913
0.054915987 0.45584348 0.37756756
-0.31817496 0.57987791 0.44882387
-0.34657496 0.5765388 0.43964234
-0.3312588 0.5467667 0.42999712
-0.40528342 0.57246524 0.44224524
-0.53823078 0.38756809 0.42177862
-0.47181913 0.4749819 0.42755222
-0.48392153 0.47124094 0.43149424
-0.49388903 0.4628351 0.43248981
-0.50303811 0.455006 0.43248665
-0.59924799 0.33024308 0.43880016
-0.50961423 0.44532022 0.43151742
-0.60524666 0.31975439 0.43884182
-0.6058659 0.30694029 0.43594167
-0.6072889 0.29353312 0.43204048
-0.51864606 0.43390474 0.43354446
-0.60053331 0.27733994 0.42422169
-0.53954381 0.40646937 0.43061501
-0.5940851 0.2632969 0.40938273
-0.94637287 0.31019124 0.68943352
-0.94429088 0.26969856 0.683779
-0.97734237 0.28302592 0.69642854
-1.0458231 0.32663146 0.73457265
-1.0281328 0.25768936 0.71026373
-1.0485718 0.28604531 0.70588201
0.48350507 0.1122524 0.61753553
0.42099991 0.14085501 0.59484154
0.46494323 0.15170291 0.60407603
0.48465994 0.16200519 0.58813572
0.41223133 0.18215299 0.56043756
-0.81767291 0.31972742 0.72328711
-0.81134868 0.30071741 0.71248859
-0.84391195 0.33046386 0.72800654
-0.82855684 0.27331802 0.6975854
-0.8729018 0.3057189 0.7169953
0.12812497 0.59140486 0.65500075
-0.72175956 0.28764144 0.70324129
-0.72400975 0.27366605 0.70133942
-0.76705194 0.30084452 0.72080022
-0.80163759 0.3265743 0.72933453
-0.77084219 0.25482148 0.71014994
-0.7922346 0.27254739 0.69984603
-0.70692313 0.33032826 0.69299829
-0.7307716 0.32574788 0.71386164
-0.59191281 0.26686144 0.53535795
-0.77810973 0.33495316 0.72643811
-0.7255488 0.26382709 0.68740809
-0.77130163 0.28280714 0.70091575
-0.82863152 0.30586299 0.72130507
0.44511706 0.18424276 0.58768046
0.40163919 0.18127958 0.58938468
0.40168193 0.19489704 0.59127313
0.46563154 0.1437799 0.60416532
0.41947863 0.14624378 0.60280508
-0.081998833 0.43876994 0.37469348
-0.53160727 0.31161076 0.44243214
-0.85186851 0.26798579 0.70444828
-0.88834488 0.2724269 0.69814277
-0.82702404 0.31213322 0.73026997
-0.95101607 0.28410104 0.70858592
-0.86380082 0.32382143 0.728903
-0.91659838 0.33890152 0.73839086
-0.80961853 0.25897092 0.70283347
0.51199752 0.13414143 0.60558575
0.45592782 0.12814295 0.59822172
0.4653323 0.1424402 0.6071741
0.4645786 0.15545642 0.60706162
0.4329403 0.17545527 0.58166289
0.09773168 0.43050784 0.38908896
-0.36253691 0.57403314 0.43758166
-0.3757996 0.57191575 0.439484
-0.39392421 0.52527487 0.41470295
-0.41018471 0.57688051 0.4481464
-0.43348634 0.49297908 0.4036209
-0.42906278 0.50225997 0.39958394
-0.57398772 0.3885408 0.42224917
-0.48466164 0.47498876 0.42632434
-0.60217524 0.41399994 0.43279925
-0.48046631 0.48287395 0.42229667
-0.60980326 0.40234369 0.43182746
-0.49493107 0.48241273 0.42817539
-0.63996136 0.42883477 0.44135207
-0.48386428 0.47907054 0.4132975
-0.5991832 0.34473592 0.43438637
-0.50289744 0.48152557 0.42211321
-0.62346971 0.36307561 0.44002759
-0.51935017 0.48211244 0.42896628
-0.63504797 0.37064672 0.43186533
-0.6515674 0.38335779 0.42861894
-0.53309703 0.42415562 0.4263162
-0.61899877 0.31575385 0.43744951
-0.5467186 0.44649714 0.43401775
-0.64512002 0.33151424 0.44109562
-0.55758923 0.46332684 0.43478727
-0.67168039 0.34446716 0.4427605
-0.56366324 0.478636 0.43261051
-0.69143015 0.35482699 0.43750498
-0.70327413 0.34388322 0.43949535
-0.57268608 0.41922721 0.43501821
-0.71173143 0.33165938 0.44052103
-0.57691312 0.40627846 0.43108609
-0.62914848 0.2563225 0.40884477
-0.63318193 0.2448018 0.40890306
-0.66743118 0.25473273 0.41352597
-0.70047832 0.26300749 0.41417247
-1.0439825 0.34208596 0.73257554
-1.0631945 0.3414906 0.7094121
-1.1096545 0.34617937 0.7029708
-1.0737001 0.32554543 0.63944513
-1.0411235 0.2799148 0.72010261
-1.073422 0.27864617 0.70483166
-1.1410214 0.28185529 0.71021974
-1.2031884 0.2826834 0.70667368
0.89583671 0.21886423 0.70540339
0.56412441 0.16874211 0.52691895
-0.53010124 0.47685188 0.34093365
-0.55880874 0.48939258 0.33558333
-0.56299263 0.48498145 0.32358193
-0.69127488 0.51229429 0.41425544
-0.83591491 0.37766919 0.42508835
-0.73470813 0.55892652 0.43250379
-0.90027887 0.40547207 0.43730673
-0.76251459 0.59073114 0.43700635
-0.95104772 0.42811358 0.43868387
-0.62661034 0.48260373 0.34105083
-0.87080717 0.3370015 0.45511621
-0.75690633 0.50241107 0.43876797
-0.74533975 0.50182039 0.41887167
-0.96742064 0.36858302 0.45802379
-0.76747674 0.52405393 0.41650018
-0.95409983 0.36046097 0.42620268
-0.86186111 0.60207486 0.45405474
-0.84203762 0.27481458 0.43086597
-0.79370576 0.46620098 0.44574174
-0.82004696 0.48913512 0.44532824
-0.84541428 0.50901759 0.44094756
-0.98966193 0.3054069 0.43133911
-0.8439725 0.51223123 0.42093277
-1.2437925 0.32399043 0.63999999
-0.81260449 0.42054999 0.44294626
-0.86031359 0.44918621 0.45130205
-0.89571321 0.46930218 0.45083275
-1.0672661 0.25735807 0.45605576
-0.93996924 0.49659759 0.45022869
-1.5550351 0.30572262 0.79845959
-0.83233249 0.37433138 0.44214824
-3.4739957 0.21273987 1.7976391
-3.4848871 0.1615058 1.6909508
-3.4321036 0.044513199 1.4503357
4.2281742 -0.90745974 1.949476
4.246552 -0.59542036 1.9161181
4.2657738 -0.28631157 1.8937919
0.73938388 0.27833441 0.41055974
0.71586627 0.28014201 0.42734247
4.2888675 0.020797672 1.8815163
0.70384109 0.33798638 0.42577207
4.3037634 0.33071965 1.8751476
0.72109395 0.17019786 0.40027225
0.67730379 0.1745429 0.4078581
-0.40839612 0.56155205 0.22931422
-0.4463082 0.451594 0.21687083
-0.48190102 0.45312652 0.21855021
-1.0260788 0.52750808 0.39324498
-1.1001323 0.50054467 0.33581647
-1.1986101 0.4558605 0.353324
-1.210122 0.37732497 0.43586278
-1.1262748 0.28312239 0.39934629
-1.0241839 0.19953084 0.35990238
-3.5098026 0.16031171 1.2237288
-3.2363062 -0.048399411 1.1297752
0.18294831 -2.0477321 0.69349575
3.8179901 -4.4534607 1.9894726
4.0151587 -4.086863 1.9502267
4.0453949 -3.6009202 1.8535686
2.5041564 2.9866264 0.89909667
2.1892538 3.0342226 0.85198051
0.47248879 3.1324065 0.66229671
-0.40248129 3.2051253 0.64212507
-0.62618482 3.2130508 0.64312238
-0.56891239 3.2122278 0.6346249
-0.49824154 3.2099111 0.62325537
-1.1624869 3.2479293 0.67419511
-0.18177979 3.1876678 0.64217937
-1.1026345 3.2538161 0.66066563
-1.3912849 3.1943941 0.68164349
-1.3579929 3.2748833 0.67428356
-1.2904884 3.2650635 0.6419456
-1.6192094 3.1242306 0.68823332
-1.5567223 3.2807169 0.65151262
-1.7581308 3.29548 0.61264539
-2.3348463 3.0077584 0.70196974
-3.0764854 3.3789563 0.89756614
-3.0093584 3.4040673 0.82894111
-2.7668242 3.3295498 0.65063107
-3.0514245 3.0122449 0.78072804
-1.6642913 -0.0044582826 0.27300641
-1.3963004 -2.1390419 0.49153319
3.8515792 -6.65136 1.4664183
3.8245232 -7.1306109 1.3540342
3.8598826 -6.410615 1.3465437
3.9034719 -5.7929072 1.3519489
3.837677 -6.8707967 1.204046
3.8813417 -6.1778383 1.2138462
3.9185295 -5.6026831 1.2355397
3.5984712 -4.6416068 1.1580226
3.6423907 -5.5877128 1.0060096
3.4305985 -4.7242923 0.97322035
3.5955226 -4.4691839 1.0466012
3.9710522 -4.447288 1.1826892
3.5019557 -4.6363788 0.8631233
3.7452836 -4.4612889 0.95982963
3.9960289 -4.3102651 1.0677947
3.9148843 -4.4775071 0.85942322
4.0267539 -4.1606407 0.94184774
4.1966753 -0.86786538 0.86980647
4.230969 -1.0700171 0.51270622
4.2273388 -0.89240801 0.62625283
4.0846176 -0.70797253 0.7165373
4.089643 -0.55611813 0.83336657
4.2498999 -0.74509186 0.49125299
4.0951324 -0.55935067 0.58942312
4.192019 -1.5947574 0.9186216
4.154223 -0.42275554 0.7108441
4.2078295 -1.3575218 0.77883899
4.2202187 -1.178219 0.89451098
4.208745 -1.2109466 0.64665771
4.2296872 -1.0452417 0.75951314
2.5096078 3.0300846 0.56178248
1.9519157 2.7426038 0.40025255
2.8874137 3.0067081 0.5182429
2.474611 2.9544048 0.38807705
2.4960465 3.0030513 0.47287717
0.73528093 3.0701349 0.23405886
0.75488561 3.0786726 0.27616298
0.77955002 3.0870535 0.31131172
0.82831383 3.1424048 0.35229161
0.52861404 3.0833635 0.26616314
0.55005193 3.0671422 0.29348147
0.60069346 3.1336102 0.32838768
0.33690265 3.0861509 0.28047854
0.066037096 3.1136286 0.22990547
0.093429774 3.1028488 0.25223127
0.16288511 3.0780754 0.28203493
-0.1538606 3.131681 0.23085366
-0.1207148 3.1163452 0.24826568
-0.086292766 3.1215324 0.25852302
-0.04231194 3.1237106 0.26688731
-0.37420601 3.1383562 0.23388968
-0.33787903 3.1289024 0.24428143
-0.30094278 3.1271904 0.2486157
-0.25389063 3.13026 0.250999
-0.59916341 3.1651437 0.23872384
-0.55879086 3.1449513 0.24223664
-1.4775299 3.2083342 0.21875946
-0.51926589 3.1499412 0.24053895
-0.46648297 3.1262276 0.2351871
-0.82361686 3.1466975 0.24192646
-0.78754503 3.1701837 0.24305008
-0.75879431 3.2449863 0.23869659
-1.065001 3.1740475 0.25061384
-1.0124116 3.1489062 0.24127153
-0.97023714 3.1605413 0.22654237
-0.91709983 3.1689315 0.20893422
-1.3125998 3.1809189 0.2594122
-2.4490695 3.2557774 0.27095705
-1.2632849 3.1792002 0.24385245
-2.3896563 3.2607338 0.21442819
-1.2157964 3.1834719 0.2222282
-1.5281055 3.2031898 0.2483633
-2.7757685 3.3009675 0.21775642
-3.4722128 1.2216656 0.33447063
-3.4632559 1.2403959 0.24639122
-1.0219663 -2.31599 0.21320505
-0.11548723 -2.3245337 0.20913769
3.6446953 -4.4636302 0.51001054
3.3263552 -4.7111659 0.49624351
4.2260427 -0.92936987 0.43460318
0.81648707 3.060369 0.21188951
0.81256443 3.0774243 0.30972484
0.17597477 3.0739248 0.28321636
-0.026716445 3.1092045 0.27816927
-0.23416109 3.1373868 0.27413812
-1.3563117 3.1839998 0.25400409
-2.3288233 3.3155432 0.20148379
-2.6888473 3.3315029 0.20822512
-2.5758646 3.2803655 0.25462317
-1.101452 -2.3068526 0.25448987
-0.12905803 -2.3179121 0.21203576
0.72261882 -2.235795 0.43679711
3.8129523 -7.2786937 1.3723947
3.7935667 -6.4832158 1.1307964
0.48871616 -2.2287927 0.36770213
3.6255996 -5.570189 0.90295917
3.3630657 -4.6387367 0.68815178
3.8719532 -6.3168797 1.2431455
3.7222319 -5.4720569 1.0130166
3.4828551 -4.6259851 0.81209981
3.7466414 -4.4597745 0.72604817
3.9253013 -5.5237765 1.141209
3.5938289 -4.57687 0.9076761
3.8978028 -4.4786701 0.8495242
3.6383264 -4.4540114 0.97507769
3.9883611 -4.4062409 0.93173397
4.1913562 -1.3418379 0.72778165
4.1083746 -0.42598534 0.64567083
4.2103758 -1.2689534 0.73436028
1.0844095 0.083373271 0.25323632
4.2256794 -1.0349827 0.73760754
4.1966128 -1.3936459 0.71624476
1.1054931 0.057561528 0.23062631
4.2170591 -1.1719735 0.72063595
1.0968446 0.11065613 0.24412405
4.2307119 -0.95630145 0.73301691
1.0928308 0.16586521 0.25864515
4.1067877 -0.70678443 0.72592705
4.2173166 -1.0711493 0.69582385
3.8785949 -0.78311294 0.65755314
4.1208377 -0.63034129 0.71443248
4.1559958 -0.42237899 0.74306381
4.0376091 -0.71817803 0.65041244
4.0958157 -0.52686882 0.6813786
3.0435853 2.9740665 0.64900595
2.7446811 2.9604168 0.50850618
2.4948161 2.9509156 0.69042224
2.2775736 2.8702865 0.46016648
0.95913041 3.0805082 0.38899797
-0.40646532 3.1950026 0.38619587
0.49590853 3.1304388 0.37956554
-0.63658124 3.1947157 0.39219695
-1.1055259 3.1719692 0.41130251
-2.0742631 3.0662215 0.54273736
-2.7076101 3.3835185 0.56567121
-1.3657297 3.3005087 0.51701009
-3.0912082 3.3670211 0.60747021
-1.5157453 2.9510829 0.41751543
-1.6298668 3.2943945 0.53376281
-2.3225505 3.3431594 0.52234316
-1.4955934 -0.084799007 0.27216122
-1.6586888 -0.010563472 0.31214765
-3.6715775 -5.3056593 1.6543993
-3.7058718 -6.2199769 1.8834835
0.38433743 -2.0245049 0.60716736
0.096620589 -2.0627975 0.5929721
0.18001311 -2.04668 0.54256397
0.15048742 -2.0025511 0.63395792
3.8316965 -4.4548893 1.6967999
3.9639173 -4.4507675 1.7979234
4.1706295 -0.19648923 1.3214264
4.2982183 0.091805771 1.3732183
1.1660933 0.19870278 0.41604641
-0.63954157 -2.0107403 0.76313412
-0.48571968 -2.0379968 0.77069074
-0.40061116 -2.1207869 0.86610234
-0.33229655 -2.0458498 0.77708781
-0.30709469 -2.0934653 0.91769916
-0.2456685 -2.0981519 0.86126232
-0.17947745 -2.0871782 0.79874516
-0.094039656 -2.1292622 0.88183141
-0.020769535 -2.1315861 0.82548308
4.2293429 -0.90940708 1.9926957
4.2467432 -0.60288393 1.9673837
4.278553 -0.29933351 1.9572222
4.295577 0.0059332377 1.9489182
4.3071852 0.3135618 1.9475497
0.70252842 0.1634597 0.40730831
0.74356174 0.25362241 0.42894304
0.68730557 0.30282268 0.4100579
0.6729607 0.34325987 0.42760995
-0.92094386 0.33315259 0.43984193
-0.93026054 0.35979182 0.44554779
-0.9276318 0.38012683 0.44340748
-0.86750567 0.50209081 0.43695202
-0.90746307 0.29218054 0.42828685
-0.9487465 0.32555059 0.44466159
-0.9370994 0.34364879 0.43561718
-0.91727316 0.46161133 0.45284513
-0.8596158 0.45346141 0.4294101
-0.92572081 0.25933504 0.42739147
-0.91826057 0.27811763 0.41830516
-0.89921129 0.38688633 0.4346
-0.90715849 0.41332147 0.44331962
-0.89717865 0.43029225 0.43927005
-1.6014266 0.36537614 0.72968858
-3.4872611 0.21144947 1.5745872
-0.45804444 0.57843029 0.43291071
-0.47802559 0.58391201 0.44269377
-0.4630031 0.57500809 0.4428958
-0.45005071 0.52970457 0.41336921
-0.47478688 0.50932884 0.4043166
-0.48041812 0.49661663 0.40136927
-0.49097329 0.48902801 0.40133828
-0.50449038 0.4855389 0.40624899
-0.51999545 0.48309779 0.41213411
-0.53785264 0.48392025 0.41997281
-0.52505517 0.48325467 0.41908941
-0.53738749 0.47812572 0.42202348
-0.55348498 0.47650456 0.42889696
-0.56346512 0.46811202 0.42987743
-0.57108581 0.45645112 0.42790586
-0.58306271 0.44911462 0.43086064
-0.58788204 0.43698615 0.42791566
-0.59868288 0.42801797 0.42989367
-0.60490656 0.41612568 0.42793462
-0.61747581 0.40960914 0.43187779
-0.60821712 0.38650912 0.41814235
-0.62079513 0.38000062 0.42308539
-0.6099683 0.38894501 0.41810766
-0.6267733 0.36948821 0.41911736
-1.1177192 0.2631816 0.69971687
-1.1424536 0.29587772 0.69823986
-0.6635105 0.36055988 0.4358705
-0.67511624 0.28935015 0.43233937
-1.1073769 0.32752621 0.71729314
-1.088788 0.30002192 0.70167398
-1.1417797 0.34108424 0.72488594
0.49113992 0.13630611 0.60573006
0.52251947 0.14405964 0.60394114
0.46166453 0.17395791 0.58617115
0.54224616 0.15436259 0.59102929
0.525814 0.16699423 0.5777843
-0.40858302 0.43424687 0.43650886
-0.85448492 0.31840068 0.71357608
-0.84153593 0.27819225 0.69600916
-0.84428358 0.26145253 0.69711912
-0.85115206 0.28474018 0.68987268
-0.86830717 0.27257743 0.70182145
-0.89941335 0.30209503 0.71231544
-0.93227059 0.33404833 0.72277468
-0.92327678 0.27366918 0.69933426
0.43078032 0.16548571 0.59598601
0.04628307 0.40983459 0.40667343
-0.75167674 0.32098529 0.71946007
-0.7210117 0.32136929 0.66872048
-0.77870244 0.33115473 0.72214359
-0.74614966 0.25686789 0.69501919
-0.77052891 0.2787782 0.69663191
-0.82471436 0.31290954 0.72588927
-0.81194615 0.2575931 0.69444054
-0.69428694 0.32864526 0.69291192
-0.72098452 0.26640394 0.69717789
-0.74986231 0.28258812 0.69679725
-0.80372357 0.30944917 0.71811521
-0.80456835 0.25930926 0.69950759
0.38539976 0.15149809 0.60272473
0.4241733 0.14726958 0.59709591
-0.90266091 0.3185747 0.72819734
-0.88883686 0.25664353 0.69781071
-0.74083495 0.28037909 0.68790799
-0.74569803 0.26829085 0.68996251
-0.78707838 0.2829904 0.69748563
-0.84189212 0.29921573 0.71188009
0.49529266 0.12709716 0.60588717
0.52111763 0.17005028 0.58876717
0.47127417 0.16744046 0.58635437
0.44049218 0.16395523 0.59811544
0.41923216 0.17304525 0.57985657
0.082158275 0.3874411 0.39019725
0.14831939 0.32793412 0.39624897
-0.12827024 0.4899711 0.39554796
-0.43613061 0.46750653 0.43305549
-0.45709944 0.47096238 0.43684587
-0.49632627 0.41932309 0.4339177
-0.52038121 0.41680902 0.43372872
-0.54192811 0.37414324 0.43452722
-0.54713905 0.36424759 0.43356726
-0.56864023 0.36851394 0.4323419
-0.58777785 0.3694936 0.42716539
-0.61597168 0.35558838 0.43603972
-0.62965459 0.33347699 0.43511137
-0.64754933 0.31208399 0.43714014
-0.65719426 0.30150285 0.43814743
-0.95015454 0.3404043 0.69926602
-1.0473466 0.3660737 0.73619574
-0.92267179 0.28140345 0.70201784
-0.9537226 0.28358668 0.68972623
-1.0421038 0.29698318 0.7178387
-1.0869946 0.29787967 0.70643717
0.869183 0.18037309 0.6815688
0.76409882 0.17606772 0.65468425
0.62409222 0.16225061 0.59457374
-0.57784033 0.58224881 0.44240236
-0.5454601 0.55946851 0.41188055
-0.55381393 0.51276672 0.40321073
-0.60739654 0.58572584 0.44511366
-0.58675677 0.53982478 0.41768929
-0.62658781 0.59535056 0.44486231
-0.65341485 0.59842676 0.45460153
-0.63566071 0.49641985 0.43263763
-0.62118262 0.49173078 0.41280344
-0.63867331 0.51614648 0.41543928
-0.66599268 0.55083162 0.42390066
-0.66716373 0.46654138 0.43662047
-0.68710226 0.48921907 0.44025001
-0.69318753 0.49947068 0.43010724
-0.68897355 0.50223458 0.41311893
-0.69177502 0.43048432 0.43771687
-0.71671224 0.45327222 0.44130167
-0.74465311 0.47510916 0.44286826
-0.7717635 0.497511 0.44243708
-0.69252712 0.38177222 0.42413044
-0.73065561 0.40750211 0.4335748
-0.77775484 0.43544689 0.44492155
-0.80950588 0.45573992 0.44346672
-0.73542762 0.35745373 0.44096506
-0.76650035 0.3733584 0.44255555
-0.7898246 0.3836236 0.43626207
-0.82762486 0.40206009 0.43577158
-0.75668389 0.32013938 0.44410169
-0.79719794 0.33547726 0.44861466
-0.83452654 0.34810218 0.44817859
-0.88398498 0.36562914 0.45159423
-0.7372511 0.26731414 0.42272687
-0.76747465 0.2751731 0.42139414
-0.81846517 0.28795817 0.42783758
-0.88262939 0.30366781 0.43814072
-1.1319989 0.3350696 0.66070271
-1.1168389 0.32436144 0.61692464
-1.1617475 0.3252748 0.60752285
-1.2164881 0.28629234 0.7043879
-1.291049 0.29077798 0.7086966
-1.3833194 0.29249543 0.71787447
-3.4699566 0.21561018 1.808352
-3.4001107 0.13710856 1.768639
0.59137893 0.17769398 0.39612666
0.69417012 0.33290702 0.42468813
-0.96407425 0.62685066 0.45162591
-0.92972994 0.52919543 0.41976714
-0.94089919 0.54312605 0.40554801
-0.94717199 0.47112489 0.41511518
-0.98541784 0.49534658 0.41157088
-0.99281776 0.42841932 0.403083
-1.1033717 0.47624046 0.4227035
-1.0686997 0.25773287 0.43689394
-1.0595336 0.38583085 0.4208675
-1.0531743 0.24991092 0.4040949
-1.0748678 0.24763614 0.38592315
-1.1260085 0.33603564 0.43871635
-1.0392805 0.17567708 0.36785442
-3.5084305 0.25581405 1.2416037
-3.4206028 0.071121939 1.3009713
4.0580301 -3.3752885 1.9092112
4.077013 -3.0928037 1.9589375
4.2677336 -0.287231 1.6974009
4.2857184 -0.0014341564 1.6870939
4.2317271 -0.8622691 1.7360437
0.92588204 0.16397595 0.40415743
4.2510829 -0.57319456 1.7147194
0.68903369 3.1124518 0.8107059
0.70293701 2.9933889 0.81985408
0.79709923 3.1381621 0.89243621
0.86595112 3.1363504 0.92905706
0.47008908 3.1622784 0.80835938
0.51933312 3.158664 0.84082389
0.57569849 3.1588602 0.86931765
0.64335465 3.1535978 0.89695716
0.24739435 3.1761382 0.80128962
0.29981384 3.1784129 0.82873088
0.35659167 3.1763403 0.85024714
0.42538035 3.1643763 0.8689537
-0.1377876 3.2055607 0.81466126
-0.077865757 3.2043014 0.82219702
-0.004889071 3.1951275 0.82691509
-0.35810444 3.2212274 0.81459743
-0.29637498 3.2174687 0.81517005
-0.22183149 3.2130027 0.81286073
-0.58182913 3.238203 0.81849277
-0.51792282 3.2297196 0.81012452
-0.81289709 3.2499645 0.82536906
-0.74590832 3.2423544 0.81001973
-0.66821247 3.238693 0.79272991
-1.1098431 3.2368793 0.84488398
-1.0527401 3.2653701 0.83813769
-0.90045005 3.246978 0.78762501
-2.5945768 3.3600028 1.0488429
-1.37773 3.2965131 0.88102776
-2.5195637 3.3722582 0.99038929
-1.3047218 3.285686 0.85575801
-1.2347099 3.2824926 0.82639599
-1.1468128 3.2612259 0.78834563
-1.6472416 3.3069139 0.91058099
-1.4972169 3.2951961 0.8389895
-1.9370673 3.3250389 0.94889069
-1.6907454 3.3062031 0.80719793
-2.2486761 3.3374922 0.99305904
-1.6590824 -0.021828445 0.30811858
0.085616402 -2.0758104 0.51010776
0.12684005 -2.0475032 0.51122463
3.8817594 -4.474647 1.1540569
4.2011981 -1.4103875 0.75739658
4.21804 -1.228193 0.86598074
4.2140498 -1.07442 0.72860909
4.2277441 -0.90673417 0.84029108
4.043169 -0.7153914 0.67601347
4.1285248 -0.57739544 0.79957932
4.1468983 -0.44201079 0.91258091
4.1164689 -0.41580963 0.66606998
2.4708164 2.6843927 0.61992919
2.7810605 3.0011647 0.77792311
2.4433582 3.0169272 0.48181018
2.4364676 3.0279722 0.56366062
2.4256024 3.0188334 0.63764983
2.3108573 2.878325 0.6848613
0.58576763 2.8270073 0.40218934
1.7547688 3.0780187 0.609267
2.7609756 2.9322908 0.50531882
0.71366465 3.1496756 0.47353047
0.37258896 3.1179292 0.37081218
0.38581964 3.0169523 0.38779992
0.39042842 2.8542173 0.38924378
0.43681037 2.8803961 0.41242525
0.15601136 3.1867588 0.37432301
0.18455733 3.1176426 0.39016986
0.21878032 3.0869849 0.40273443
-0.066642366 3.2056866 0.37521082
-0.030209877 3.1667867 0.38886589
0.92228943 2.9838228 0.44978184
0.0096740788 3.1265345 0.39356214
0.84378743 2.976681 0.44115567
0.059479862 3.1205049 0.40205023
-0.29115149 3.2134612 0.37717864
0.60788482 3.1500177 0.37959144
-0.24948476 3.201618 0.38664579
0.60737073 3.0355825 0.40157551
-0.2045963 3.1784341 0.38823834
-0.15075588 3.1616464 0.38885397
-0.51755422 3.2273047 0.38207772
-0.4720006 3.2169254 0.38556576
-0.42547131 3.2120757 0.38301423
-0.36847562 3.2183807 0.37845787
-0.74766028 3.2274265 0.3870627
-0.68927413 3.1682541 0.37908313
-0.65073341 3.2278013 0.37690619
-0.59181976 3.2366056 0.36534449
-0.97200727 3.188597 0.39043397
-0.93671888 3.2458158 0.38824862
-0.88638073 3.2545834 0.37361199
-0.8192088 3.2347157 0.35236922
-1.2171718 3.1977029 0.4012101
-1.1793641 3.2479973 0.39110592
-1.0581309 3.2455029 0.34116971
-1.390695 3.2907095 0.37087077
-1.300172 3.2331514 0.33015633
-1.693867 3.2364655 0.4036876
-1.663204 3.2985337 0.37141743
-1.5538538 3.2198727 0.32104918
-2.4435713 3.3590002 0.49207392
-2.1563115 3.0406284 0.40432894
-2.8167019 3.3801203 0.52462757
-2.4838521 3.0548174 0.42234033
-2.6533735 3.3672101 0.39415771
-2.4981637 3.2778673 0.31228065
-4.0293264 -7.5790176 0.79869378
-1.1235822 -2.2637718 0.27115899
-0.90911883 -2.1767681 0.2612842
-0.72718185 -2.1388247 0.25554895
0.062632442 -2.3023205 0.27887824
0.36684832 -2.4077301 0.29545444
0.36975867 -2.1832914 0.27653909
3.5813487 -6.0448985 0.84707427
0.49502558 -2.21398 0.28690189
3.5818365 -5.7876177 0.75484931
0.5360713 -2.1871204 0.28202912
3.9044106 -5.6561408 0.84554416
3.5870097 -5.5333834 0.64569026
3.3333156 -4.6535401 0.64486462
3.5870988 -4.5135808 0.73088342
3.4646659 -4.6185355 0.56170678
3.6991024 -4.4653134 0.65144193
4.0005293 -4.3696351 0.75926226
3.6146569 -4.6146655 0.46498036
3.8834431 -4.478528 0.56416452
4.2109065 -1.2822306 0.47439718
4.2128987 -1.0982227 0.59283292
4.1872411 -1.1301945 0.34086594
4.2313309 -0.96890974 0.46086678
4.2021775 -0.79121709 0.57908434
4.1218805 -0.48493049 0.55873251
0.84445626 3.0314207 0.20271489
-1.3171846 -2.2444768 0.30208793
-1.0741062 -2.2916682 0.22961253
-0.22790657 -2.3827672 0.25580001
0.65813571 -2.2686305 0.33657834
0.41047925 -2.2145288 0.26694205
3.5857773 -5.6300693 0.73807079
3.6260521 -5.4375772 0.82477742
3.4126723 -4.632297 0.65098608
3.6451445 -4.4705935 0.57862657
3.5595307 -4.6229973 0.73919755
3.8104756 -4.4750786 0.67011815
3.9742665 -4.4722199 0.75053233
4.0127759 -4.309535 0.73747188
4.0387282 -0.64708084 0.52224368
4.1131544 -0.45916122 0.55928439
4.2633195 -0.57250059 0.51256698
4.2208123 -1.3995174 0.54529577
4.1992097 -1.3006375 0.54225755
4.222785 -1.0794014 0.55356556
4.2393765 -0.9926151 0.54496479
1.0825903 0.15516646 0.20447478
4.2232614 -0.77265495 0.56193697
4.2209558 -1.0852308 0.4975948
4.2269258 -0.87894309 0.51687771
2.9536853 2.9960012 0.55748081
2.5052299 2.6791506 0.59728098
2.3841779 2.7012496 0.38501629
2.5866663 3.0242679 0.52802533
2.4844925 3.0240061 0.63314164
2.2823756 2.9790571 0.39474154
2.2353754 3.0219815 0.49896973
1.7902212 3.0610681 0.57574499
0.86902612 3.1185584 0.32917497
0.83866358 3.1327984 0.51580101
0.639346 3.1335828 0.32303646
0.41352016 3.1329193 0.3170664
0.18639578 3.0722463 0.30859998
0.19312519 3.1226385 0.39523032
-0.024017334 3.1307387 0.31225553
-0.24132253 3.1473491 0.31321248
-0.2293653 3.1595597 0.39321816
-0.46039185 3.1664157 0.31613311
-0.44423163 3.1779168 0.39418149
-0.71991688 3.2439632 0.24419244
-1.5834365 3.1077797 0.40982297
-1.6192975 3.2949457 0.49590904
-0.93816388 3.1639824 0.24697062
-2.3846734 3.277091 0.33535746
-2.3492091 3.3269248 0.40724513
-1.174611 3.2482078 0.3401868
-2.0764506 3.009541 0.42235598
-1.1246542 3.198827 0.40405229
-2.0597594 3.0839093 0.48386806
-1.4520384 3.2047493 0.27212876
-2.6648266 3.283236 0.42586172
-1.438414 3.2747438 0.352653
-2.6482556 3.3612077 0.48734185
-2.5795724 3.3767443 0.54081303
-1.7207216 3.2979109 0.36798665
-1.1100332 -2.219619 0.35569546
-0.91484267 -2.205344 0.35327891
-1.3327985 -2.2572424 0.36407244
0.1195128 -2.0633764 0.53911477
3.7243848 -7.3555112 1.6961513
3.8364451 -6.7021232 1.443501
3.8913774 -5.8080845 1.3482965
3.5880437 -4.6281605 1.1694995
-1.1918768 0.44700584 0.31807685
-1.1988919 0.47397405 0.31878394
-3.6015999 -4.7436037 1.89675
-3.7142801 -6.0530372 1.9020174
-1.2322385 -1.9956064 0.79174584
-1.055849 -1.9876525 0.77321631
-0.59998673 -2.0230296 0.76049984
-0.38206661 -2.1422081 0.86343437
-0.31124207 -2.0363669 0.76513594
-0.23596779 -2.0919626 0.846277
-0.17020069 -2.0667667 0.77962977
4.0604014 -3.2071629 1.9344569
4.0644021 -3.1408002 1.9859257
4.205389 -1.0405684 1.7670919
4.2158346 -1.0122097 1.7649393
4.2401686 -0.73878783 1.7748027
4.2222219 -0.95750707 1.7445233
4.2798886 -0.10894004 1.7687364
4.2342248 -0.70638496 1.758471
4.2975574 0.15301232 1.8246436
4.2364154 -0.43641779 1.7751714
4.2749724 -0.28724173 1.6782187
4.2299881 -0.89953512 1.7120904
4.2923813 -0.048947234 1.7273266
4.2448587 -0.65243483 1.7310981
4.2947416 0.18972893 1.7823001
4.1694918 -0.39774981 1.7252508
4.2902675 0.44822672 1.8450443
4.2887988 -0.14384161 1.8051167
4.2941756 0.019165251 1.6717526
4.248158 -0.59163117 1.6906012
4.3118134 0.25537178 1.7348814
4.2367344 -0.34732822 1.7124037
1.0096194 0.12896864 0.46603778
0.81070626 0.166482 0.40797406
0.81605166 0.21734288 0.4275851
-0.9496668 0.54810959 0.415317
-0.97482902 0.48705927 0.4166218
-0.94456428 0.49634483 0.41080573
-0.99612057 0.44978055 0.42375392
-0.95985395 0.45586616 0.41001722
-1.0170975 0.3880381 0.42510122
-0.98770505 0.40028459 0.41225159
-1.012531 0.31985649 0.4177264
-1.0391483 0.35012424 0.42623419
-1.0348289 0.37159166 0.42108685
-1.0483466 0.28568834 0.42370731
-1.0585961 0.31031069 0.42240587
-1.0602014 0.24387367 0.41596225
-3.2167065 -3.1066346 1.8680413
-0.56070286 0.40019083 0.35595357
-0.65930104 0.49808159 0.4372541
-0.63327861 0.49441504 0.42651251
-0.71156412 0.44223812 0.43927768
-0.54979652 0.57879335 0.42651632
-0.66830385 0.44715148 0.42361262
-0.68021703 0.47575444 0.43926328
-0.71606511 0.38844186 0.42970061
-0.58369035 0.5334211 0.41360933
-0.70139551 0.39888719 0.42573866
-0.56118584 0.52606487 0.40686902
-0.5491271 0.52982521 0.40994233
-0.75451982 0.35620847 0.44464257
-0.73960179 0.36803174 0.43867084
-0.71974325 0.37469459 0.4267863
-0.76655579 0.3094638 0.44493955
-0.76951253 0.33075851 0.44773054
-0.76074868 0.34430936 0.44068998
-0.74837273 0.35797217 0.43267992
-0.77427626 0.31855977 0.43579268
-1.115822 0.32928687 0.64672756
0.17421819 0.33553815 0.40593603
0.19986972 0.37868258 0.41779032
-0.28413057 0.57867551 0.44683403
-0.43561107 0.48109046 0.43434554
-0.43186006 0.46898833 0.43248221
-0.45834017 0.45616031 0.43136051
-0.47057971 0.44746968 0.43632838
-0.48378319 0.42813101 0.43337873
-0.9324913 0.34603798 0.72117788
-0.92752218 0.32366496 0.71441299
-0.91833252 0.30056518 0.70369107
-0.91052693 0.26050061 0.69410282
-0.95854372 0.3000412 0.7023434
-0.97469866 0.32776898 0.69796354
0.45543659 0.12065095 0.61924195
0.47222304 0.12991613 0.59930772
0.43817618 0.15853786 0.60676515
0.45600653 0.16978052 0.58682311
0.45389834 0.18302962 0.58669108
-0.78169268 0.33461922 0.7175895
-0.80391443 0.34331763 0.71832067
-0.77875739 0.26876482 0.69717753
-0.80006593 0.29164618 0.69779521
-0.84973824 0.32656282 0.72306371
-0.84294385 0.27079228 0.69859886
0.039737646 0.38926873 0.40227157
-0.76114321 0.31615716 0.72091943
-0.79106289 0.33903569 0.72246253
-0.75822777 0.26750734 0.70035923
-0.78600574 0.28569609 0.69696075
-0.80204821 0.25824341 0.69803828
-0.84239 0.26992404 0.69658577
-0.72278291 0.33126679 0.71610832
-0.72366101 0.31704977 0.71222174
-0.72995025 0.30521065 0.71526814
-0.71040052 0.28315935 0.68962532
-0.74775457 0.28721458 0.69326437
-0.80730194 0.31015342 0.71954978
-0.84696871 0.32603684 0.72006732
0.47656381 0.10643439 0.63050163
0.49580213 0.1432101 0.60535371
0.45023251 0.14501233 0.60493976
0.48165539 0.1870465 0.59485453
0.41464183 0.17935963 0.57533264
0.3836014 0.18501778 0.54801077
